# .PCD v0.7 - Point Cloud Data file format
VERSION 0.7
FIELDS x y z
SIZE 4 4 4
TYPE F F F
COUNT 1 1 1
WIDTH 1394
HEIGHT 1
VIEWPOINT 0 0 0 1 0 0 0
POINTS 1394
DATA ascii
0.17566207 0.044210572 0.19560926
0.1590604 0.046944186 0.19981931
0.068695404 0.044584971 0.13589966
0.17238192 0.049448445 0.19446386
0.15912858 0.050655872 0.19809437
0.071214229 0.048877735 0.13742258
-0.069282502 0.044751473 0.040926274
0.15656835 0.056101702 0.19816394
-0.07158187 0.046389654 0.040545225
-0.060393207 0.046390578 0.042858984
0.080018349 0.052976146 0.13445066
-0.058603708 0.049831539 0.044651322
0.15836966 0.059363082 0.19527809
0.1740227 0.059393328 0.19178832
-0.049054313 0.051558927 0.045896314
0.15806785 0.062986486 0.19437018
0.16297427 0.061174572 0.19231972
0.16701627 0.06129143 0.19136372
0.076979883 0.059719242 0.13632888
0.15862843 0.064832516 0.19319673
-0.049728401 0.054988295 0.047079023
0.069024362 0.062671535 0.13980001
0.079514116 0.062709473 0.13610314
0.081354134 0.063037626 0.1359251
-0.059142713 0.056360036 0.046309542
-0.055455126 0.056410089 0.046737377
0.1586777 0.068192728 0.19166288
0.16035369 0.068314597 0.19086285
0.16573733 0.06996578 0.18879353
-0.060341816 0.061161462 0.047381297
0.16050394 0.071713172 0.18944095
0.076704547 0.071320742 0.13809191
0.082686543 0.071397521 0.13664097
0.15839514 0.075189359 0.18931507
0.16824351 0.073763147 0.18720056
0.075779215 0.073091991 0.13912143
0.076799832 0.07488215 0.13888098
0.081270635 0.074867651 0.13839306
0.16233754 0.077957302 0.18681042
0.08081238 0.08221405 0.14463317
0.16924512 0.084456056 0.18436582
0.079955444 0.084060237 0.14576067
0.083650902 0.084030159 0.14298274
0.1479573 0.087623633 0.19213572
-0.057416011 0.078234851 0.057239559
-0.038208608 0.078446344 0.060958967
0.080832995 0.086573862 0.14548905
0.088390641 0.085671909 0.1420784
0.15145974 0.090355679 0.18765208
0.15491919 0.088563837 0.18607359
0.16959283 0.090325505 0.18191934
0.14883932 0.092132106 0.18927358
0.15028132 0.092205927 0.18780258
-0.032021608 0.083524227 0.064795144
-0.059270833 0.084951192 0.063721307
0.14247152 0.095808879 0.18781255
-0.059263978 0.08688923 0.065460317
0.076353058 0.09354683 0.1500112
-0.057011664 0.08805088 0.066360347
0.13937286 0.098815419 0.18564975
-0.05925392 0.090417378 0.068327308
0.14695117 0.10210983 0.181311
0.1415408 0.10398659 0.17851444
0.077704467 0.10632931 0.16357194
0.13812712 0.10721962 0.17386056
0.17682433 0.11025424 0.18109933
0.079594776 0.1107064 0.16226885
-0.046469782 0.10332927 0.078074679
-0.044130549 0.10448691 0.078502506
-0.043655071 0.10872317 0.083021931
-0.037780434 0.11148916 0.085554302
-0.040878903 0.11219355 0.085961282
0.079148978 0.11969072 0.16781054
0.1008167 0.12234488 0.17265917
0.1299867 0.12363359 0.14976723
0.095084451 0.12573422 0.17132021
0.12318549 0.1338691 0.1460415
0.083928712 0.14440091 0.18774527
0.084994532 0.14761317 0.18383247
0.12208427 0.14819686 0.14228284
0.15081024 0.15253347 0.14662911
0.131874 0.15386833 0.14312652
0.15455148 0.15578055 0.14741033
0.078930914 0.15715474 0.18767093
0.07978636 0.15840235 0.18531564
0.14813514 0.15741484 0.1464428
0.15565412 0.15747258 0.14659691
0.078845516 0.15942067 0.18729636
0.13455144 0.16060725 0.14446481
0.076181158 0.16312246 0.18898438
0.07526654 0.17537788 0.1992102
0.072921768 0.18219468 0.20048141
0.073613375 0.18464376 0.19632183
0.12114251 0.18264969 0.13838398
0.13732862 0.18392336 0.11103687
0.00064427778 0.18741144 0.19305606
0.00081031024 0.1913562 0.19588506
-0.0048319586 0.19648069 0.19509868
0.035470005 0.19500704 0.17651561
0.031215716 0.20296295 0.17591853
0.0043029115 0.20621237 0.19353731
0.06466984 0.2132491 0.19373335
0.04081855 0.22147073 0.17431989
0.13630624 0.23086479 0.094363123
0.06117899 0.23493053 0.18287274
0.039393812 0.23684061 0.17129193
0.0039443746 0.23667647 0.18637449
0.0046353452 0.23799899 0.18394518
0.027961735 0.23685074 0.17014378
0.045333326 0.24349649 0.16945931
0.0032410137 0.2431425 0.18705983
0.06153506 0.24555001 0.17673302
0.0041099712 0.24770007 0.18073767
0.060042135 0.25033858 0.17251976
0.005452726 0.24974988 0.17889215
0.055351391 0.25971943 0.1605023
-0.0015192702 0.26527184 -0.029659634
-0.023267604 0.32423669 -0.049830265
-0.025271716 0.34468105 -0.050645031
-0.064431801 0.35532695 -0.024124814
-0.027435264 0.55945981 -0.084620357
-0.029994521 0.59646893 -0.086051688
-0.031080127 0.60833317 -0.084316827
-0.02688076 0.64227414 -0.087632097
-0.030486267 0.67067504 -0.08903262
-0.15797386 0.68843406 0.058409154
-0.010869108 -0.4306547 0.25741041
0.0063955337 -0.40392876 0.22245581
0.0078071207 -0.39658639 0.21879597
0.017375752 -0.39643261 0.22106107
0.03492634 -0.38689753 0.22544086
0.031021379 -0.38118306 0.22305633
0.013968796 -0.3751376 0.21626258
0.0097236559 -0.36798039 0.21309365
0.031064309 -0.36555645 0.21753033
0.03918612 -0.36492562 0.22128929
0.020932503 -0.3543652 0.21568231
0.03341233 -0.35335758 0.21874423
0.053659454 -0.35283998 0.23049438
0.022232339 -0.34889165 0.21667492
0.0092101395 -0.34728417 0.21449333
0.024976768 -0.34727463 0.21819955
0.019507855 -0.34235585 0.21835722
0.02729091 -0.34231946 0.2206503
0.024615802 -0.34396455 0.21897171
0.039587691 -0.34383178 0.22428387
0.043349683 -0.34391534 0.22652991
0.059279576 -0.34401929 0.23601919
0.039040253 -0.34061852 0.22568107
0.050534368 -0.34140658 0.23102939
0.051102884 -0.33640468 0.23395713
0.0083151981 -0.3314724 0.22218727
0.011905149 -0.331687 0.22442536
0.013120621 -0.33331779 0.22416881
0.01757478 -0.33237135 0.22571364
0.049653247 -0.33198252 0.23588496
0.0080967769 -0.32820901 0.22388741
0.02171699 -0.32905948 0.22953285
0.027493276 -0.32662028 0.23292829
0.029833406 -0.32586661 0.23354813
0.023854017 -0.32293752 0.2352843
0.02625493 -0.32131055 0.23696291
0.052768447 -0.31989533 0.24952689
0.019527502 -0.31269342 0.23553762
0.0057604089 -0.30941999 0.23381057
0.075437404 -0.31033009 0.26156881
0.023243882 -0.30574694 0.23805989
0.079745881 -0.3050276 0.26353252
0.025455236 -0.29932642 0.23808828
0.031051546 -0.30086258 0.24043272
0.076603413 -0.30047002 0.26465926
0.019951969 -0.29765189 0.23729476
0.019073687 -0.29596812 0.23725431
0.03750734 -0.29436839 0.24320218
0.0323046 -0.29090229 0.24039321
0.020208009 -0.28744203 0.24029915
0.034212425 -0.28756657 0.24140936
0.082356505 -0.28937286 0.27200454
0.080423273 -0.28606233 0.27194566
0.046944804 -0.27939624 0.24728246
0.07566537 -0.27443057 0.24779159
0.025668636 -0.26885849 0.24550746
0.11605936 -0.2266916 0.19646688
0.11784437 -0.226704 0.19719493
0.11964737 -0.22671552 0.19753094
0.1187522 -0.22138532 0.19521156
0.12722521 -0.21717958 0.19833061
0.11888409 -0.21208718 0.19556619
0.12822857 -0.20121837 0.19828252
0.12729222 -0.19953367 0.19795612
0.13277495 -0.1940589 0.20005676
0.12609403 -0.1898291 0.19734158
0.13244733 -0.17814197 0.20008267
0.14711213 -0.17755803 0.20633872
0.085638538 -0.17617384 0.21845952
0.13133295 -0.17651519 0.20016322
0.14035466 -0.17527847 0.20284404
0.091663539 -0.17452483 0.22098719
0.083696336 -0.17182988 0.22006337
0.086410388 -0.17210916 0.22041246
0.087948948 -0.16144221 0.22274676
0.084074609 -0.15964776 0.22412926
0.067103744 -0.15622254 0.21646513
0.084482074 -0.15628377 0.2236934
0.073005445 -0.15458368 0.21861379
0.096044511 -0.15470262 0.22963317
0.14721288 -0.15451252 0.20821682
0.072872996 -0.15124965 0.21876994
0.077718146 -0.15123402 0.22091199
0.082141109 -0.15291449 0.2228895
0.14956263 -0.14914849 0.21014048
0.060854055 -0.14290118 0.21557264
0.074699648 -0.14455891 0.22001325
0.079516016 -0.14457215 0.22261731
0.095378317 -0.14239326 0.23164399
0.10750467 -0.13784871 0.23868701
0.15617245 -0.13528299 0.214053
0.075361438 -0.12975346 0.22508948
0.073357373 -0.12637492 0.22502659
0.089899369 -0.12651563 0.23497984
0.098863728 -0.12652659 0.23894396
0.092375964 -0.12487971 0.23639546
0.099717632 -0.12486431 0.23927556
0.058142021 -0.12247093 0.22285436
0.15317565 -0.12295674 0.21384381
0.054398254 -0.11789916 0.22520714
0.060458653 -0.11794664 0.22583222
0.075344212 -0.11688137 0.23323016
0.095746472 -0.11502973 0.24115798
0.054217122 -0.11245571 0.23107374
0.091609538 -0.11169778 0.24068506
0.095263533 -0.11169562 0.24202712
0.089403078 -0.10839214 0.24122317
0.043031827 -0.10609814 0.24317294
0.11440536 -0.10635673 0.25195602
0.093356483 -0.10407376 0.24310213
0.094286121 -0.099078178 0.24458587
0.092908584 -0.089305274 0.24774034
0.11924304 -0.08758045 0.25814825
0.16381703 -0.085239239 0.22042027
0.1685724 -0.086855754 0.22121875
0.099467367 -0.084203452 0.25140309
0.12111726 -0.084221333 0.25889841
0.071256295 -0.082407653 0.24785326
0.087072007 -0.082491003 0.24928452
0.090878397 -0.082469031 0.25089455
0.11767952 -0.080805108 0.25699052
0.12755087 -0.082554743 0.26098508
0.099428356 -0.07756865 0.25183344
0.10374875 -0.072726607 0.25284424
0.089022242 -0.067844704 0.25184378
0.17868599 -0.06763614 0.22519998
0.18265697 -0.067635983 0.22664402
0.10626468 -0.059329048 0.25518984
0.18035144 -0.060910925 0.22611928
0.10274432 -0.057629324 0.25446239
0.1185679 -0.055991448 0.25793821
0.12576465 -0.055033505 0.25957498
0.19066243 -0.056411561 0.22625825
0.12918204 -0.047760554 0.2571522
0.13424364 -0.046146765 0.26039991
0.12038473 -0.046134822 0.25333366
0.19241846 -0.038537197 0.22031471
0.10591663 -0.031784076 0.24287975
0.1241567 -0.03247647 0.24828419
0.1260777 -0.032475576 0.24892822
0.13412762 -0.032408431 0.25328434
0.13669887 -0.029025503 0.25306046
0.13956046 -0.027351789 0.25410908
0.12412868 -0.023314726 0.24456985
0.1339547 -0.023796322 0.24917111
0.093110129 -0.022033289 0.2405331
0.099697843 -0.022051662 0.2398432
0.032986395 -0.021752838 0.18148017
0.12906983 -0.019650122 0.24492198
0.11896645 -0.013088251 0.23848215
0.12468763 -0.013962202 0.24064445
0.12833235 -0.012844608 0.24128522
0.13041635 -0.012875932 0.24247625
0.035349615 -0.013825557 0.15904915
0.034120798 -0.012016842 0.15975969
0.15254037 -0.0087618325 0.2459625
0.14060965 -0.0054485649 0.24296749
0.038702041 -0.0084667383 0.15652984
0.15496361 -0.0048271874 0.23628454
0.13284406 -0.002382989 0.2362176
0.14661181 -0.0018631956 0.24621266
0.19068626 -0.001704054 0.20966123
-0.057245996 -0.0042773169 0.053568624
0.1484254 0.0047509484 0.240512
-0.060742117 0.0027790982 0.048468769
-0.062786192 0.0027737713 0.047772039
-0.052001715 0.0075927991 0.049426954
0.15321738 0.0145038 0.22603355
-0.055410773 0.009307459 0.047050066
0.17549106 0.017290354 0.20269814
0.15039137 0.019211259 0.22165431
0.15382758 0.018370882 0.22073558
0.18652569 0.018890176 0.20389988
-0.048424393 0.014181832 0.048878707
-0.045115925 0.014197555 0.05038036
0.15360972 0.022328157 0.21848755
-0.054853827 0.015836788 0.045818798
-0.04845503 0.01743733 0.048486285
0.15302721 0.02455464 0.21893097
-0.049106091 0.019072441 0.047521949
0.15346336 0.028424775 0.21476297
-0.072771095 0.0207981 0.040977981
-0.046051573 0.020705247 0.048032176
0.18907642 0.028939897 0.20366736
-0.043691896 0.023968872 0.047182772
0.18676266 0.032483246 0.2015774
-0.058618322 0.023945985 0.042910259
0.15234078 0.035659764 0.21222714
0.15424074 0.036099534 0.20926902
-0.061541531 0.028886875 0.041895859
0.15328521 0.038082562 0.21249449
0.15575743 0.037591025 0.20672466
-0.05890581 0.030496212 0.042832177
-0.041976146 0.030458968 0.045663323
-0.01370322 0.032683432 0.065783456
0.076926194 0.035573997 0.13344808
-0.064052962 0.03210419 0.041827701
0.082966357 0.04124669 0.1362547
0.15394792 0.044206705 0.20625295
0.06619601 0.044522606 0.13744262
0.14845914 0.047716983 0.20678595
0.14979318 0.04759112 0.20575702
0.1502018 0.049345307 0.20412858
0.18538485 0.049454343 0.19852705
0.085571989 0.046444442 0.13651741
0.075281613 0.048160091 0.13647582
-0.047921851 0.044731617 0.044451289
0.15220243 0.055455498 0.20231502
0.18363433 0.05634395 0.19620125
0.07977128 0.056264922 0.1349408
0.066395484 0.057367183 0.13919632
-0.03520732 0.053899266 0.050659109
0.064554028 0.060693756 0.13872045
-0.040065527 0.057147302 0.049579512
0.15120056 0.068594046 0.19712666
-0.040419176 0.060353778 0.051347986
0.14776842 0.068984196 0.19876452
0.16917694 0.071841441 0.18788707
0.17714302 0.071307421 0.19014931
-0.03513157 0.064039432 0.055428911
-0.035894338 0.066930443 0.056165151
-0.030481089 0.067392781 0.059322812
0.1514197 0.077081658 0.19271448
-0.073778935 0.067294419 0.050172437
-0.052800313 0.069636323 0.05274713
-0.05429364 0.069372594 0.052336972
0.16824925 0.079516426 0.18472806
-0.049973927 0.071874864 0.054264192
-0.035999551 0.071679853 0.05863614
0.14402121 0.083337076 0.19657078
-0.025822341 0.075258397 0.064617164
0.072566353 0.082860455 0.1496029
-0.053201217 0.078225911 0.057376519
-0.049131673 0.077556483 0.05792195
0.17020446 0.091982022 0.18228993
-0.053196728 0.081661813 0.060355835
0.14024122 0.092104025 0.19579045
0.14336787 0.093974203 0.19110402
-0.021802817 0.087155655 0.071072862
-0.048776004 0.092533022 0.06866651
-0.022678778 0.095170721 0.074392997
0.048572548 0.099798307 0.14797221
0.087811187 0.10205942 0.15077518
-0.029498551 0.098122425 0.07422144
0.063523009 0.10622746 0.16117376
-0.039727468 0.10455491 0.078505248
0.13898343 0.11590709 0.15542333
0.10880957 0.11853773 0.17290725
0.11187377 0.11813165 0.16594641
-0.032842547 0.1137304 0.086034097
0.13080108 0.12200306 0.15085168
0.080892101 0.12690167 0.19345471
0.080616705 0.13112295 0.19466963
0.15451387 0.13189229 0.15028247
0.081989005 0.13342127 0.19478409
0.082325384 0.13561054 0.19550651
0.085500799 0.13703085 0.1860662
0.090109855 0.13538828 0.17985466
0.11129823 0.13446616 0.15282619
0.14400096 0.13622051 0.14492719
0.15077889 0.13627279 0.14781529
0.08290495 0.13914004 0.19687562
0.082169712 0.14101924 0.1983671
0.14582647 0.14275087 0.14470355
0.15464443 0.14275971 0.14799868
0.15628041 0.14276224 0.1486357
0.11959921 0.1440592 0.14183183
-0.0054896958 0.14238624 0.11973853
0.079953246 0.14881301 0.19183408
0.15284196 0.14927207 0.14691797
0.15968591 0.14939713 0.14908606
-0.013354544 0.14339177 0.12085116
0.15766385 0.1541283 0.14747679
-0.0029100887 0.15334308 0.13251375
0.0074691288 0.15462482 0.13411856
0.17300937 0.16047317 0.15313841
0.14553833 0.16095117 0.14610589
0.15675612 0.16204737 0.14467473
0.17417397 0.1621695 0.15319298
0.0099243447 0.15947478 0.13937037
0.14906961 0.1642168 0.14544009
0.071589656 0.16853017 0.20745991
0.1422829 0.16738595 0.14426617
0.013464995 0.16469027 0.14603406
0.074252464 0.17189807 0.20470408
0.14563914 0.17072409 0.14572138
0.074947163 0.17299016 0.20063882
0.019167427 0.17313132 0.156867
0.1846146 0.1819945 0.14396702
-0.0060955808 0.18255337 0.19485125
0.070525907 0.18695982 0.20701116
0.14099933 0.18565127 0.10367848
0.14610881 0.18788575 0.10487898
-0.0087608248 0.19965616 0.19258681
0.042202182 0.20503451 0.18007013
0.031176955 0.20637171 0.17511365
0.03771051 0.21322903 0.17441197
0.064181224 0.21502036 0.19527887
0.14316042 0.21221542 0.098554693
0.034542322 0.21495625 0.17421849
0.037066799 0.21815871 0.1736667
0.040801987 0.21817389 0.17503373
0.043618895 0.2198237 0.17581338
-0.0070500113 0.22161654 0.1926012
0.061641749 0.22629525 0.18920195
0.14265008 0.22696687 0.096881598
0.043670177 0.22973941 0.17459081
0.041183814 0.2314335 0.17316434
0.14048743 0.22996484 0.094614796
0.045350216 0.23488568 0.17423853
0.059111588 0.24072476 0.18176924
-0.00034503639 0.25393641 0.18211299
0.05226893 0.25689232 0.16685697
0.056766659 0.25719967 0.16777596
0.32808894 0.27601227 0.24650492
0.023118354 0.26118439 0.14570045
0.0056923032 0.2626285 0.14598885
0.01146733 0.26272818 0.14363891
0.029909141 0.26259971 0.14480019
0.027539581 0.2652784 0.14200948
0.096637249 0.26648882 0.059207328
0.048538264 0.26238024 0.0095982859
0.0018111765 0.26220208 -0.031587698
0.0015168153 0.26324245 -0.033760171
-0.022619821 0.28043947 -0.047621325
0.092522994 0.31661075 0.047016513
-0.021827949 0.30532148 -0.048119392
-0.024021538 0.3226395 -0.050055962
0.35657844 0.37093127 0.24477097
-0.022518964 0.32582095 -0.049406566
-0.02542547 0.32815084 -0.051364601
0.1356753 0.35508233 0.08138404
-0.026173234 0.33994573 -0.05124623
-0.022994677 0.33997384 -0.049679097
-0.00013699755 0.35302165 -0.035393119
-0.21127219 0.36092824 0.16488062
-0.30624962 0.3659049 0.25910205
-0.025520768 0.3601436 -0.075544298
-0.026898038 0.41494054 -0.078412987
0.13146812 0.44600096 0.052427664
0.12485385 0.49637339 0.044090159
0.24300174 0.53946209 0.14154814
-0.029687846 0.53907043 -0.084477842
-0.026925743 0.55051804 -0.084366165
-0.029957559 0.60671425 -0.08449851
-0.024078459 0.61148608 -0.082932875
-0.025773359 0.61291319 -0.084659353
-0.024002172 0.61516178 -0.084151097
-0.023839867 0.61826354 -0.08484029
-0.027908435 0.63374501 -0.087419719
-0.026809787 0.63396436 -0.087160058
-0.025782408 0.64378452 -0.087264664
0.19869195 0.69224548 0.084514149
-0.0282677 0.65483487 -0.087837927
-0.16024205 0.68931961 0.058707498
-0.02726276 0.6813482 -0.091188312
0.025300764 -0.42596215 0.2548357
0.011951685 -0.41340491 0.22870533
0.011709847 -0.41096327 0.2275167
0.023537055 -0.40891713 0.22930233
0.027657673 -0.41044858 0.23174678
0.01730299 -0.40707931 0.22616878
0.032586806 -0.40744242 0.23183909
0.0053448975 -0.40567496 0.22248927
0.011261486 -0.39645559 0.21891697
0.041081376 -0.39896238 0.23217903
0.050949194 -0.39821309 0.24020998
0.03979668 -0.39529932 0.22969206
0.023588337 -0.39294291 0.22220226
0.028559066 -0.39273524 0.22429127
0.03543482 -0.39399302 0.22704667
0.0030417591 -0.38780603 0.21655865
0.046723597 -0.38939801 0.23266566
0.038170844 -0.38658243 0.22680983
0.030479565 -0.38518295 0.22378336
0.042407766 -0.38589507 0.22837473
0.049607933 -0.38085687 0.23455852
0.050332949 -0.38271841 0.23562999
0.026615202 -0.37940869 0.22046782
0.032938689 -0.37587491 0.22167701
0.035639957 -0.37761188 0.22339649
0.037538841 -0.37759629 0.22415452
0.043061741 -0.37729016 0.22739251
0.032009706 -0.3722887 0.21954007
0.050083704 -0.37246397 0.22991037
0.0590166 -0.37286046 0.23548257
0.03335461 -0.37053725 0.22005163
0.05327411 -0.37041998 0.23093288
0.028584972 -0.36838233 0.21610203
0.033130586 -0.36726674 0.21843481
0.047292322 -0.36887434 0.22707342
0.057619318 -0.36745247 0.23291118
0.037148386 -0.36468539 0.22020517
0.044261649 -0.36259687 0.22365776
0.059854887 -0.3642216 0.23434336
0.065897986 -0.36229217 0.23844296
0.044170588 -0.3591738 0.22390288
0.055906378 -0.35872942 0.2307139
0.036139689 -0.35501468 0.21980569
0.037049465 -0.35668638 0.22020912
0.043011338 -0.35539922 0.2234569
0.055293851 -0.35685664 0.23040743
0.066810042 -0.35692158 0.2399846
0.068946108 -0.35766092 0.24065581
0.07304924 -0.35753024 0.24370681
0.032850973 -0.35484281 0.2182776
0.044914916 -0.35365331 0.22514649
0.049006313 -0.35428977 0.22777268
0.065544032 -0.35593727 0.23843135
0.068434656 -0.35566804 0.24072732
0.080278039 -0.35584146 0.25185353
0.05177366 -0.35285166 0.22960533
0.037532061 -0.34881991 0.22175214
0.035604157 -0.34876153 0.22082709
0.049942821 -0.34947816 0.22921048
0.050724432 -0.34782082 0.23003003
0.062269039 -0.34875837 0.23700847
0.038806692 -0.34551013 0.2235823
0.045767896 -0.34664059 0.22730367
0.053117126 -0.34404066 0.23235312
0.023259394 -0.34077206 0.21809185
0.040153131 -0.3422533 0.22554746
0.054078586 -0.34254414 0.23345076
0.029737607 -0.34065345 0.22254793
0.048357859 -0.34007725 0.23026505
0.017898776 -0.33485892 0.22332528
0.047029279 -0.33670011 0.23188214
0.072815835 -0.33698136 0.24724455
0.033644557 -0.33367705 0.2283942
0.06267412 -0.33604148 0.24015717
0.068280578 -0.33482704 0.24479297
0.070363387 -0.33484042 0.24542598
0.085207701 -0.33689398 0.26125675
0.058630437 -0.33080322 0.2408648
0.04015962 -0.32784665 0.23602679
0.071463406 -0.32886004 0.25348246
0.078908153 -0.33034393 0.25916094
0.08123114 -0.33116919 0.2599842
0.006823428 -0.32656419 0.22432399
0.047590099 -0.3262417 0.24096246
0.057335138 -0.32786804 0.24258803
0.068115398 -0.32518396 0.25299749
0.077880502 -0.32701081 0.2605381
0.081004284 -0.32544822 0.26394475
0.085924327 -0.32760802 0.2682164
0.080525428 -0.32338047 0.26335117
0.035633422 -0.31978622 0.24166766
0.02585078 -0.31799743 0.23780906
0.033346929 -0.3184666 0.24196827
0.03579703 -0.3185409 0.24268532
0.037591122 -0.31822312 0.24407524
0.024557695 -0.31672898 0.2368627
0.032913201 -0.3162187 0.24213569
0.044086426 -0.31679851 0.24869598
0.031300008 -0.31531531 0.24121945
0.03601522 -0.31417054 0.24405223
0.046362296 -0.31503123 0.25151759
0.081202067 -0.31681547 0.26281953
0.043478459 -0.31219804 0.25090384
0.079818018 -0.31307086 0.26254854
0.076361082 -0.31203881 0.26189923
0.080783926 -0.31141248 0.26307112
0.060020141 -0.30865884 0.26062715
0.040656231 -0.30560991 0.24634108
0.08791808 -0.30885646 0.26859158
0.018675022 -0.30405244 0.23622139
0.029000565 -0.30347151 0.23866837
0.028746299 -0.3014434 0.23909888
0.033686616 -0.30256367 0.24154618
0.082170531 -0.30330834 0.26648709
0.088629074 -0.30373558 0.2713773
0.027455032 -0.29931584 0.23856728
0.037991516 -0.30089411 0.24378785
0.078502558 -0.30115145 0.26530045
0.082698494 -0.30053094 0.26746041
0.080856629 -0.30013856 0.26659623
0.090089373 -0.29727644 0.27470163
0.050075665 -0.29361755 0.25101814
0.039371967 -0.29141474 0.24404541
0.054723814 -0.29316077 0.25382006
0.089993566 -0.29379433 0.27517375
0.039458796 -0.2875717 0.24407741
0.049320109 -0.28664708 0.24954636
0.035797052 -0.28418997 0.24250053
0.05395256 -0.28471979 0.25059089
0.038163953 -0.28253195 0.24435312
0.087572582 -0.2665419 0.23976672
0.098976053 -0.25825319 0.22879376
0.12651692 -0.22935297 0.20139374
0.12957637 -0.2271435 0.20437521
0.13605621 -0.21303874 0.20159368
0.14336693 -0.21216829 0.20857455
0.12062413 -0.20792168 0.19604014
0.1290119 -0.20706441 0.19745207
0.14197882 -0.20709924 0.20617722
0.14377666 -0.20649649 0.20754313
0.14229237 -0.20510019 0.20605272
0.14439407 -0.20393546 0.20708346
0.14603877 -0.19818395 0.20759203
0.13996428 -0.19569753 0.20292027
0.14381918 -0.19540806 0.20522027
0.14298245 -0.1920186 0.20392437
0.14769739 -0.1920386 0.20755844
0.13461484 -0.18480951 0.19991241
0.13769782 -0.1847603 0.20184344
0.14708659 -0.1841199 0.2068924
0.14140025 -0.17788322 0.20287274
0.1509005 -0.1749485 0.20898414
0.15409642 -0.17462827 0.21099207
0.15792833 -0.17461637 0.21495512
0.089068919 -0.1741102 0.22174703
0.15362795 -0.17268139 0.21087055
0.091112159 -0.17034367 0.22204709
0.091256998 -0.16838418 0.22382157
0.13872893 -0.16767776 0.20311907
0.14776222 -0.16929477 0.2068046
0.14293256 -0.16606528 0.20514672
0.14836952 -0.16608948 0.20733079
0.15343359 -0.16220154 0.21053688
0.05520422 -0.16140629 0.21629931
0.085381061 -0.15796345 0.22410685
0.14241928 -0.15622802 0.20666319
0.097939007 -0.15462926 0.22927816
0.14033642 -0.15243249 0.20669319
0.15818305 -0.15122156 0.21401414
0.084937595 -0.1511815 0.22426809
0.15499461 -0.14914173 0.21232155
0.14375371 -0.14066091 0.20979422
0.088980362 -0.13991322 0.22960927
0.085695319 -0.13910457 0.22723502
0.065780461 -0.131752 0.21975686
0.1439517 -0.13182229 0.21198994
0.092301406 -0.12980518 0.23462072
0.098943971 -0.12984669 0.23846084
0.077974848 -0.12814038 0.22702406
0.16714737 -0.12639911 0.21951289
0.080236137 -0.12647015 0.22976069
0.084621936 -0.12618959 0.23204368
0.086609893 -0.12649989 0.23302279
0.073951297 -0.12477243 0.22642617
0.072696321 -0.12313566 0.22666274
0.074349999 -0.12314098 0.22780778
0.10067438 -0.1232229 0.24000114
0.10702871 -0.1249356 0.24335468
0.072968729 -0.12151916 0.22836331
0.0822699 -0.12288907 0.2322128
0.10168457 -0.11993311 0.24221231
0.15406054 -0.11799142 0.21428256
0.10338672 -0.11624037 0.24358539
0.075262263 -0.11337242 0.23706628
0.16123635 -0.1128263 0.2162203
0.17464179 -0.11085541 0.22346899
0.17735782 -0.11119314 0.22595312
0.10599468 -0.10745074 0.24765217
0.16078624 -0.1035882 0.21702994
0.11019164 -0.10308476 0.25164908
0.10534335 -0.10162587 0.24769066
0.10574497 -0.099957526 0.24872623
0.11392844 -0.097945206 0.25445384
0.1660153 -0.095205531 0.21928589
0.10347603 -0.095772602 0.24882415
0.099411264 -0.092407435 0.24763322
0.124989 -0.09203583 0.26174146
0.16491917 -0.090183116 0.21953855
0.16397078 -0.088546231 0.21994214
0.16682839 -0.086874202 0.22060174
0.10501481 -0.086175881 0.2518357
0.16183403 -0.085263252 0.22015825
0.17049488 -0.080225669 0.22181408
0.17048314 -0.076965541 0.22233127
0.1963508 -0.076509014 0.23938349
0.12018638 -0.075892515 0.25900528
0.18891208 -0.07281363 0.23103046
0.19364513 -0.068791814 0.23318547
0.12371716 -0.066217639 0.26205087
0.19431432 -0.065160893 0.23187155
0.1960133 -0.064996466 0.23321854
0.12121179 -0.064542487 0.26055536
0.19518393 -0.063476749 0.23204313
0.19852877 -0.062767819 0.23465301
0.1175864 -0.062785484 0.25985184
0.1227074 -0.062949978 0.26198798
0.19548908 -0.059541151 0.23062514
0.1073923 -0.057648983 0.25520441
0.19562121 -0.051149659 0.22734597
0.19373755 -0.048169993 0.2253572
0.12445371 -0.046128958 0.2542837
0.19746441 -0.043025017 0.22549391
0.19229919 -0.04191272 0.2218916
0.13686913 -0.039334562 0.25771216
0.12997238 -0.035788137 0.25225514
0.14643627 -0.036143135 0.26574945
0.11162223 -0.030135255 0.24381241
0.11563821 -0.030135717 0.24466248
0.19354223 -0.028453385 0.21780615
0.19475046 -0.025112318 0.2181433
0.14072989 -0.024860617 0.25487947
0.19736192 -0.022732655 0.21843374
0.1431623 -0.022184905 0.25360084
0.11272698 -0.019913852 0.24006683
0.14411575 -0.019748114 0.25307623
0.11587484 -0.014789889 0.23834555
0.054996178 -0.0083246008 0.15124902
0.074511617 -0.0091242455 0.16858248
0.10630627 -0.0074941302 0.23147854
0.10827537 -0.0080075758 0.2334207
0.075409241 -0.0069099721 0.16667196
0.077538162 -0.0056070406 0.16627166
0.12872076 -0.0054713618 0.23671132
0.1924957 -0.0035563931 0.21005473
0.19483182 -0.0042552333 0.21249196
0.12870632 -0.0035467893 0.23522185
0.14692822 -0.0038307803 0.24738617
-0.052633829 -0.0042485641 0.056016281
0.11383797 -0.001512018 0.2269261
0.11969502 -0.0018645991 0.22984527
0.1412085 -9.6749514e-05 0.24019115
0.19850488 -0.0003001187 0.21529298
-0.03880702 -0.0016214977 0.063181296
-0.036858961 -0.0019956762 0.064440317
0.044749126 0.0023409771 0.14704615
0.061679475 0.0027714786 0.14228928
0.14610752 0.0038839141 0.24455819
-0.070147909 0.0019424094 0.046856746
-0.042751111 0.0017633593 0.057471473
-0.030258488 0.0033664596 0.066419236
0.063526459 0.0042655184 0.14226493
0.087229982 0.0042056376 0.16230728
0.091199487 0.0049402975 0.16495715
0.13924339 0.0049330154 0.23594181
0.19677654 0.0057566501 0.2123234
-0.03767202 0.0038801539 0.059809104
0.065403245 0.0056727226 0.1421966
0.083761111 0.005595888 0.15977086
0.08890637 0.0060607139 0.16212684
0.19508298 0.0083793355 0.2102887
-0.038238641 0.0054241428 0.0583161
0.070947856 0.0086309128 0.14329989
0.19529851 0.01046441 0.21044719
0.14114982 0.012273466 0.23098694
-0.029456139 0.010401651 0.062644541
0.044836409 0.010737773 0.133228
0.19438276 0.013767173 0.20907232
-0.00073162466 0.012912265 0.0856428
0.013064198 0.01382694 0.097982064
0.049196988 0.014750827 0.13466203
0.0062305331 0.014390366 0.091624826
-0.025337402 0.016435686 0.06262356
0.0077067539 0.016621934 0.09137848
0.043752201 0.017816018 0.12654617
0.14354615 0.019843975 0.22781205
-0.033629432 0.01840453 0.05492444
-0.0029551722 0.019523004 0.080014177
0.063367307 0.020570053 0.13859774
-0.035911545 0.020792397 0.052139491
0.00057311356 0.020437563 0.082885087
0.075977407 0.021487957 0.13845769
0.19523534 0.024463221 0.20889659
-0.028053124 0.022615572 0.057176039
0.031921759 0.024193741 0.11214636
0.033235081 0.023155393 0.11348265
0.042927854 0.023108529 0.12262481
0.056866936 0.024639705 0.1348276
0.061389044 0.024478327 0.13909872
-0.016273011 0.023773354 0.066171601
0.010416806 0.024429899 0.089970008
0.015146069 0.02613317 0.093886234
0.043890558 0.025705986 0.12276314
0.081790656 0.025625594 0.14046872
0.097774252 0.026433092 0.15600772
0.10219554 0.02673935 0.15971969
0.033519402 0.028469987 0.11203529
0.034414396 0.02708343 0.11337865
0.050875299 0.027889 0.12838668
0.10130523 0.028200027 0.15849932
0.1029181 0.028701812 0.1597192
-0.040171202 0.028841255 0.04754927
-0.018184319 0.029253526 0.063478269
0.0042357221 0.028983671 0.08245565
0.10185377 0.030166119 0.15869279
0.19374928 0.033830427 0.20708516
-0.0021626875 0.03058039 0.076492757
0.047003277 0.032757673 0.12314338
0.1011811 0.033200838 0.15701304
0.19117928 0.033968907 0.20466611
0.012882091 0.033414111 0.089771822
0.029619806 0.032728642 0.10678414
0.12997399 0.035939891 0.19190772
0.13588078 0.036540594 0.19721365
0.14981975 0.035613287 0.21529807
0.19252372 0.036413155 0.20553051
0.019100487 0.035198469 0.095892355
0.13101363 0.037619986 0.19208431
-0.027069755 0.035658229 0.0561704
-0.025248174 0.035637919 0.057277232
-0.021454614 0.036942583 0.060771253
-0.018826395 0.036748625 0.062909737
-0.015717849 0.03556655 0.06496828
-0.016998313 0.036290247 0.063698284
-0.0034372881 0.037783477 0.075636983
0.020002209 0.036416072 0.096259877
0.039257586 0.037563637 0.11615204
0.086979657 0.038869902 0.13937238
0.089960843 0.039683539 0.14199121
-0.01757098 0.037942585 0.063988246
-0.016682114 0.039315708 0.065175705
0.00059837848 0.038774941 0.078943387
0.022331461 0.038671959 0.098786019
0.026169442 0.040339105 0.10266914
0.027457796 0.039141361 0.10370447
0.18393043 0.042524345 0.19869281
0.021415845 0.041997854 0.097272851
0.041533962 0.041906886 0.11827696
0.051105402 0.042156518 0.12589702
0.18247868 0.04587359 0.19736391
-0.002351556 0.042973746 0.077297464
0.051114686 0.043981869 0.12603655
0.063109159 0.045230903 0.13597141
0.064899459 0.044383805 0.13669464
0.13028285 0.045495097 0.19006629
0.14017341 0.046646453 0.2054221
-0.042703152 0.044742554 0.044709254
0.017212152 0.045684081 0.093685746
0.019516483 0.046290528 0.096075125
0.051041342 0.045976147 0.12603903
0.092322849 0.048097428 0.14143306
0.14521272 0.049316414 0.20927151
-0.0022633299 0.04599084 0.078763202
0.0064017475 0.047781181 0.08607696
0.014228866 0.047121517 0.09132874
0.049542621 0.048778467 0.12514131
0.051035225 0.047816176 0.12621458
0.066063508 0.048564628 0.13770658
0.10562533 0.049944438 0.1551048
0.10870646 0.049191047 0.15778805
-0.042802572 0.047409989 0.044942066
-0.0042070746 0.049448956 0.080519885
0.010109022 0.049572296 0.090204753
0.037698783 0.049086306 0.11465307
0.043589674 0.050543249 0.12059478
0.050956771 0.049776342 0.12615208
0.090635933 0.051318519 0.13899423
0.18098313 0.052792549 0.19509211
0.186331 0.053167831 0.19889209
0.18808779 0.05402454 0.20006092
0.017567545 0.051752161 0.096034706
0.053180195 0.052198701 0.12833749
0.1109784 0.053837076 0.15944989
0.12922081 0.054625317 0.18761893
0.13011165 0.055264525 0.18912378
-0.040536113 0.052353587 0.047964629
-0.035004869 0.051935118 0.050620217
-0.032056309 0.051995736 0.052754037
1.7084181e-05 0.052384835 0.085271992
0.043696173 0.054085653 0.12088186
0.056199528 0.055038463 0.13094679
0.10906289 0.056306511 0.15665922
-0.041728795 0.053956535 0.048093703
-0.039753899 0.053953256 0.048760332
-0.03237164 0.05388023 0.052596357
0.019349337 0.055153683 0.098885044
0.025231704 0.055896021 0.10388514
0.039079152 0.055694968 0.11726138
0.04711698 0.056065835 0.12405941
0.089307263 0.056697462 0.13679083
0.10938241 0.058386441 0.15642169
0.1305517 0.059549846 0.18885168
-0.061653517 0.054713149 0.044572931
0.040453807 0.057146672 0.11873504
0.052582331 0.057805859 0.12866302
0.097474441 0.060009807 0.14225809
0.11384382 0.060728587 0.16011013
0.12893626 0.061522603 0.18889214
0.034548834 0.060815953 0.11454301
0.040480018 0.060540728 0.12004518
0.051927395 0.059691109 0.12862355
0.058065422 0.05981845 0.1327696
0.063216455 0.061126158 0.13721132
0.11042345 0.062580571 0.15641864
0.13245694 0.062816866 0.19074188
0.17833355 0.064328223 0.19225913
0.035693683 0.062330902 0.11569164
0.03720551 0.061688881 0.11696682
0.043269135 0.061687779 0.12209591
0.063803971 0.062332544 0.13820402
0.10951919 0.063885584 0.15531428
0.12743862 0.06443876 0.18696938
0.18560132 0.065051034 0.19760104
0.018702999 0.062949017 0.10418323
0.063539147 0.065544754 0.1380652
0.12819736 0.069868185 0.18872401
0.13062745 0.0694113 0.19016217
0.17600438 0.069658101 0.19032775
-0.041302375 0.066760294 0.054108731
-0.0076449923 0.067103684 0.076243706
-0.0064864866 0.065828577 0.077548638
0.026541024 0.067617655 0.11273015
0.031262383 0.067245655 0.11471131
0.045025297 0.067821406 0.12573037
0.057394646 0.068816841 0.13485529
0.063559279 0.068904266 0.13930334
0.060664073 0.071158297 0.13840471
0.059120923 0.071895428 0.13682351
0.099345267 0.071712144 0.14425212
0.12932359 0.073244184 0.19012417
0.13254555 0.073292747 0.19177218
-0.021355864 0.070440337 0.06587936
-0.0079042241 0.07122793 0.076268949
-0.0014473386 0.070203483 0.082839899
0.13331217 0.074946485 0.19236977
0.18283291 0.076013267 0.1935132
-0.040321071 0.071448341 0.056927439
-0.0049519166 0.073819377 0.078535624
0.044912785 0.074296005 0.12897569
0.056213319 0.074583694 0.13654378
0.062765449 0.075962842 0.14142253
0.12738878 0.076902784 0.18951118
-0.029533543 0.073633954 0.062319431
-0.014422558 0.074954011 0.071103901
-0.0064084865 0.074786358 0.077397063
0.11164004 0.077511996 0.16010481
0.13267195 0.080225036 0.19398639
-0.010433804 0.076255746 0.074661024
0.02145952 0.077046454 0.11782366
0.042461812 0.077698395 0.12878379
0.060065366 0.079783805 0.14170651
0.091547854 0.079244249 0.14494509
0.10610257 0.079530276 0.15942323
-0.014932249 0.078340113 0.07261762
-0.014881738 0.078293055 0.072774336
0.035687752 0.080349915 0.12706302
0.047276877 0.081122912 0.13358097
0.058866777 0.081496373 0.14158407
0.12920122 0.08346685 0.19314355
0.13066122 0.083483383 0.19395755
0.14248697 0.084274933 0.1977825
0.17578304 0.084668964 0.18683386
-0.033936717 0.080055468 0.063936308
-0.015958808 0.081301413 0.072063051
-0.013970334 0.080021381 0.073231906
-0.0093707219 0.081537195 0.076605983
0.031911492 0.083220348 0.12738523
0.068575434 0.084332503 0.14942046
0.09468367 0.084002033 0.1459429
0.10174681 0.083366193 0.15207618
0.11223114 0.085542187 0.16580276
0.13324583 0.085161798 0.19481416
0.17828344 0.087299481 0.18781525
-0.010287076 0.083115458 0.076106481
-0.0064500533 0.08264669 0.078713328
0.052286811 0.085030384 0.13916503
0.13274604 0.088517457 0.19600128
0.13297704 0.088480428 0.19601928
0.13390741 0.086858205 0.19590473
0.13389243 0.086858399 0.19589074
0.13646203 0.08849515 0.19769134
0.065875657 0.087838389 0.14905252
0.13193166 0.09013097 0.19594984
0.17492262 0.091155216 0.1843382
-0.022608742 0.085552737 0.07016217
-0.012243077 0.086236686 0.075985625
0.051446944 0.088346854 0.14054118
0.066369943 0.089471854 0.15043613
0.11987548 0.091643222 0.18568029
0.13072029 0.091845036 0.1965014
0.1348033 0.09178073 0.19632249
-0.0041424111 0.088767365 0.082062609
0.070434235 0.092715703 0.15599035
0.13550898 0.09312401 0.19756715
-0.020431016 0.089639992 0.073126756
-0.016487431 0.089605644 0.074902713
-0.012315337 0.089931712 0.076992095
-0.0065000057 0.090679951 0.080960169
0.090355493 0.093621098 0.14617738
-0.050765011 0.091720112 0.06758339
-0.012832239 0.092189103 0.077040493
0.042210013 0.095493145 0.14168024
0.094895497 0.096220016 0.15353677
0.12843877 0.09877333 0.1926526
-0.035403628 0.094749518 0.070056222
-0.018406261 0.094513603 0.076410227
0.039917797 0.097708344 0.14248362
0.050679304 0.096595705 0.14605606
0.056401573 0.097395502 0.15002495
0.040177178 0.099512331 0.14415616
0.044729132 0.1003589 0.14701004
0.048428804 0.10169349 0.14956672
0.050579209 0.1020656 0.15051766
0.091931783 0.10162152 0.15191336
0.095158815 0.10220907 0.15507825
0.16752478 0.10380597 0.18057784
-0.026356827 0.10135943 0.077332765
-0.0044863187 0.10075328 0.087514818
0.16168806 0.10743306 0.17429084
0.16768704 0.1073062 0.17732094
-0.028326742 0.10315145 0.078342475
-0.020243794 0.10240167 0.079870276
0.084748447 0.10567258 0.14675322
0.12359613 0.1067929 0.18003748
-0.014871024 0.1040728 0.083423316
-0.0091917031 0.10487387 0.086490005
0.0028220713 0.10464451 0.09405382
0.045811176 0.1089201 0.15579584
0.15188566 0.11466274 0.15834185
-0.018262941 0.11019374 0.086231299
0.16021521 0.11644243 0.16139551
-0.028755456 0.11331735 0.086117469
0.056571104 0.11641873 0.16832605
0.10513176 0.11753165 0.17584045
0.16373757 0.11918964 0.16319983
-0.0019380488 0.11563329 0.097354241
0.15884343 0.1201172 0.15789153
0.16286133 0.12028804 0.16150355
-0.023597363 0.11623227 0.089112878
0.15971272 0.12319136 0.15774077
0.16359301 0.12177721 0.16157417
0.16692491 0.12201858 0.16390516
0.19609395 0.12424529 0.19551902
0.22719848 0.12487243 0.21924627
0.22896644 0.12505317 0.22060224
0.24119395 0.12655354 0.23069303
0.24762875 0.12725018 0.23534594
0.2705985 0.12690003 0.25739637
-0.0083022565 0.1200857 0.096829817
0.00074423105 0.12013207 0.10196333
0.011907108 0.12040275 0.1103024
0.1529454 0.12496261 0.15295121
0.15530038 0.12488139 0.15389827
0.23719671 0.1278246 0.22680967
0.00074889883 0.12193149 0.10351586
0.0030678622 0.12200431 0.10475687
0.086387172 0.12611181 0.18518299
0.21702269 0.12909666 0.20952605
0.22437572 0.12853663 0.2147883
0.23462531 0.1298492 0.2235561
0.26461464 0.13122344 0.24864417
0.27966017 0.13253558 0.26334608
0.28666624 0.13180983 0.26978734
0.19809544 0.13133933 0.19011021
0.20218477 0.12968343 0.1945677
0.25295523 0.13374598 0.23765236
0.25122532 0.13348925 0.23634142
-0.0003400445 0.12536961 0.10499496
0.0080603883 0.12597705 0.11106392
0.058986254 0.12909472 0.18953285
0.14726014 0.1307531 0.14818667
0.16254301 0.13087149 0.15581883
0.17905554 0.13216242 0.16812474
0.201639 0.13319753 0.19164582
0.20863587 0.13337895 0.19862384
0.21425399 0.13235989 0.20525816
0.22240876 0.13307625 0.2111571
0.22917645 0.13426711 0.2162929
0.24913393 0.13529712 0.23375092
0.25587773 0.13584501 0.23908888
0.26655284 0.13473901 0.24930529
0.27973142 0.13599321 0.26183018
0.28144625 0.13654295 0.26297909
-0.022193987 0.12632138 0.10003641
-0.0092322193 0.12769827 0.10374825
0.15814172 0.13247049 0.15188937
0.21546118 0.13608371 0.20353124
0.24833961 0.13679956 0.23239852
0.2710962 0.13743384 0.25239167
0.28196979 0.13857503 0.26289755
0.1469833 0.13463473 0.14697866
0.1655331 0.13491347 0.15696283
0.17327297 0.13507377 0.16299291
0.20440239 0.13578045 0.19277418
0.20980512 0.13672587 0.19744001
0.2358616 0.13750869 0.22059116
0.2902371 0.14127357 0.26944798
0.17566533 0.13786156 0.16395621
0.22748801 0.14072031 0.21087722
0.15719718 0.13932477 0.14965959
0.16165015 0.13930149 0.15274565
0.16769513 0.13910006 0.15719879
0.23919526 0.1434454 0.22041668
0.2671586 0.1448293 0.24586071
0.22117126 0.14462084 0.20283712
0.29389066 0.14758836 0.26943341
0.16491318 0.14349756 0.15383764
0.25365922 0.14750753 0.23148185
0.28772357 0.14837362 0.26417109
-0.0053446852 0.14076972 0.11760593
0.13834621 0.14420405 0.14035906
0.16239399 0.1445514 0.15159333
0.24292424 0.14794864 0.22180456
0.24540998 0.14907348 0.22293733
0.24715389 0.14932719 0.22420128
0.25643763 0.14995348 0.23277123
0.26542035 0.1507978 0.24155316
0.12541777 0.1460229 0.14340141
0.15124272 0.14601752 0.14632379
0.16815856 0.14621365 0.15536699
0.28382573 0.15230034 0.25877106
0.28773451 0.15330678 0.26088685
0.2868706 0.1529894 0.26021692
0.1414884 0.14762129 0.14230323
0.15117797 0.14926247 0.14614595
0.15183035 0.1476568 0.14682737
0.15664895 0.14927821 0.14818703
0.16788776 0.1497273 0.15418208
0.1834785 0.15028153 0.16475216
0.24581215 0.15277019 0.22146438
0.26584849 0.15448648 0.24008322
0.2691893 0.15536793 0.24254607
0.28595987 0.15626863 0.25804701
0.014714561 0.14634448 0.1301748
0.065689325 0.1515096 0.2143272
0.14119165 0.1509044 0.14307241
0.15001261 0.15091717 0.14605652
0.16715047 0.1511589 0.15315871
0.18672803 0.15228355 0.16594067
0.24237156 0.15553929 0.21705964
0.2435438 0.15456401 0.21890192
0.28714037 0.15834588 0.25786453
0.061494432 0.15338098 0.21952866
0.16121808 0.1530894 0.14880411
0.27995718 0.15961242 0.25063008
0.28874815 0.15928861 0.25920531
0.11968894 0.15440421 0.13789921
0.1283769 0.15419447 0.14296636
0.14017072 0.155036 0.1424453
0.16678271 0.15450951 0.15201783
0.1730385 0.15525484 0.15557973
0.21819954 0.15722848 0.19241385
0.27247718 0.16002087 0.2434009
0.060499165 0.15724781 0.21976265
0.14499952 0.15578501 0.1460072
0.16196123 0.15688539 0.14801115
0.17805997 0.15758832 0.1569612
0.18206564 0.15886486 0.15936591
0.24977136 0.16064806 0.22138944
0.28777137 0.16283169 0.25646842
0.28886396 0.16471697 0.25652593
0.12862974 0.15924807 0.14494608
0.12951213 0.15753613 0.14458852
0.15905675 0.15910225 0.14618254
0.16609073 0.1590371 0.15104665
0.1855482 0.16065803 0.1609455
0.21844438 0.16268378 0.18934545
0.29015458 0.16646919 0.25649348
0.14396752 0.1601816 0.14520404
0.16120343 0.16049305 0.14733522
0.16054107 0.16211966 0.14657678
0.16714437 0.16049024 0.1507573
0.16647103 0.16212489 0.14979987
0.28727618 0.16823786 0.25366497
0.30086109 0.16802274 0.26470828
0.015764248 0.15895659 0.14130659
0.023451909 0.16093998 0.14788119
0.13876405 0.1623172 0.14443342
0.19177023 0.16488701 0.1632995
0.19364318 0.16503483 0.16461551
0.19714005 0.16541226 0.16713445
0.20381187 0.16588922 0.17284444
0.24696195 0.16736673 0.21481265
0.29287061 0.17059876 0.25624946
0.16090433 0.16546154 0.14562994
0.17092028 0.16542096 0.1501711
0.17802522 0.16546558 0.15403719
0.2036175 0.16743988 0.17175004
0.29069436 0.17202654 0.25330707
0.071446568 0.16725004 0.20702225
0.15835401 0.16701041 0.14336352
0.17739986 0.16709416 0.15302177
0.024177257 0.16623618 0.15179883
0.12431592 0.16750129 0.14181291
0.15605466 0.16860928 0.14108406
0.19127686 0.17101292 0.15934394
0.19972673 0.17132729 0.16504698
0.020323656 0.16921879 0.15361901
0.024609745 0.16796079 0.15391441
0.030576713 0.16952057 0.15950808
0.15547132 0.17025681 0.13986462
0.1646868 0.17233978 0.14322722
0.17918882 0.17186597 0.15072155
0.19530451 0.17255317 0.16056462
0.20126532 0.17313462 0.16503255
0.12219074 0.17274974 0.14153953
0.16691367 0.17290135 0.14348811
0.23277515 0.17656823 0.19411409
0.064530142 0.17504039 0.21084414
0.19502173 0.17618129 0.15752468
0.13885272 0.17759839 0.13717552
0.014967345 0.1765147 0.15804906
0.17543623 0.1795812 0.13939452
0.19706166 0.18119806 0.15480441
0.24021138 0.18433829 0.19159219
0.024847493 0.17828579 0.16142276
0.026642539 0.18014088 0.16419131
0.26455849 0.18758716 0.20856671
0.28232208 0.18830998 0.22355478
0.30661649 0.18973269 0.24379276
0.30709681 0.18817224 0.24548717
0.30850273 0.18845868 0.24591112
0.020876117 0.18159443 0.16361085
0.17276633 0.18417297 0.1290383
0.20314372 0.18524395 0.15683445
0.23634282 0.18744144 0.18393536
0.25514427 0.18889982 0.19984424
0.26181138 0.18808378 0.20577255
0.27194583 0.18998128 0.21424219
0.29900843 0.19030035 0.23745549
0.30093336 0.19053704 0.23853245
0.033243258 0.1832349 0.17002159
0.15240444 0.18463504 0.11228889
0.1647543 0.18475509 0.12098303
0.20439124 0.18713924 0.156738
0.22568557 0.18929467 0.17477073
0.24635813 0.19006169 0.19174382
0.26380372 0.19086759 0.20706387
0.2812331 0.19271995 0.22046764
0.30526176 0.1929957 0.24125889
0.30693269 0.19326344 0.24262585
0.029794477 0.18495193 0.16941112
0.18660444 0.18735337 0.14182968
0.2083195 0.19039172 0.1591192
0.27267501 0.19372436 0.21399324
0.031131987 0.18829085 0.17164928
0.034728758 0.18833917 0.17360932
0.15092552 0.18901469 0.10816976
0.1734671 0.18963778 0.12782492
0.1856367 0.19064148 0.13925983
0.18924549 0.19144203 0.14198466
0.19319242 0.19147788 0.14584771
0.19688854 0.19084162 0.14919093
0.21534517 0.19141997 0.16564801
0.2238877 0.19312254 0.17198773
0.30991179 0.1972585 0.24401385
0.033485174 0.1899969 0.17384288
0.062201694 0.19289628 0.20434752
0.15013029 0.19012026 0.10737745
0.16361003 0.19044642 0.11944456
0.16962576 0.19137794 0.1239184
0.18822618 0.19291846 0.14069627
0.19428802 0.19332318 0.14598125
0.20406406 0.19251779 0.15533158
0.2858327 0.19895166 0.22297311
0.28699991 0.1977312 0.22409442
0.29951069 0.1981198 0.23480047
0.039194774 0.19156414 0.17744555
0.039871294 0.19318558 0.17859516
0.04255911 0.19167964 0.18037356
0.14447108 0.19116107 0.10386612
0.14539871 0.19279437 0.10419571
0.17258838 0.1929713 0.12668903
0.1757281 0.19399568 0.1291808
0.18016504 0.19401661 0.13273688
0.18441308 0.1936395 0.13653603
0.22151184 0.19707038 0.16955265
0.25332135 0.1977132 0.19534595
0.27557167 0.19956498 0.21390879
0.30136001 0.20107552 0.23612377
0.30552992 0.20141023 0.23901875
0.30714777 0.20200592 0.24024659
-0.013284422 0.19437721 0.18892011
0.16576892 0.1953471 0.12033534
0.16877303 0.19476037 0.12256952
0.16759177 0.1959618 0.1213552
0.17022981 0.19561906 0.12377933
0.19167237 0.19641884 0.14304942
0.21614064 0.19819093 0.16469331
0.27474132 0.20124748 0.21265335
0.27462032 0.20114444 0.21258937
0.2864798 0.2029587 0.22251707
-0.015598956 0.19630857 0.18846956
0.039561816 0.19613269 0.1791624
0.14197291 0.19638091 0.10156373
0.15753084 0.1961274 0.11305802
0.17397223 0.19802262 0.12662975
0.24497455 0.20161033 0.18763684
0.2683087 0.20424156 0.2068125
0.27957782 0.20314354 0.21638395
0.28510442 0.20454414 0.22155665
0.041808464 0.1984296 0.18082382
0.055929236 0.20046504 0.19351351
0.14742142 0.19849491 0.10432128
0.17751092 0.19921011 0.12947051
0.19682422 0.20120578 0.14608327
0.21753675 0.20216031 0.16490933
0.22503549 0.20316555 0.17090717
0.24720091 0.20454219 0.18900713
0.25999156 0.20528267 0.19917409
0.30985743 0.20784062 0.24057415
-0.0066284128 0.19962138 0.19160084
0.04132621 0.20007524 0.1798114
0.056460485 0.20245431 0.19403797
0.14612615 0.1997423 0.10319494
0.14475593 0.20077769 0.10215765
0.18225229 0.20165907 0.13276494
0.18354209 0.20264366 0.13393871
0.19707778 0.20319486 0.14614275
0.22169209 0.20494482 0.16730367
0.23127584 0.20556924 0.17587861
0.24039882 0.20510207 0.18279688
0.29300335 0.20903429 0.22700161
0.30032101 0.21027741 0.23273741
0.30864015 0.20916504 0.2394388
-0.013161726 0.2013008 0.19112232
-0.00014413521 0.20339432 0.19736698
0.056858115 0.20452131 0.19378246
0.18261284 0.20371316 0.13282843
0.21737599 0.20567098 0.16384742
0.22605452 0.20725971 0.17062312
0.24082041 0.20702213 0.1826704
0.24569586 0.20922929 0.18677491
0.27154353 0.2093167 0.20856525
-0.013256874 0.20463578 0.19105944
-0.011507485 0.20464031 0.19173747
0.17782858 0.2052279 0.12818798
0.19509479 0.20760275 0.1436346
0.24107893 0.2091582 0.18272184
0.25582257 0.20991676 0.19521888
0.27833191 0.21182173 0.2143757
0.28029683 0.21197458 0.21594967
-0.01248157 0.20631716 0.19178304
0.14502166 0.20646748 0.10101318
0.14679255 0.20697016 0.10203609
0.16428751 0.20624082 0.11645053
0.17137614 0.20745184 0.1219513
0.21905269 0.21147631 0.16353698
0.22732157 0.21142799 0.17061709
0.2490851 0.21243563 0.18909211
0.27908745 0.213725 0.21473522
0.27899945 0.2138319 0.21442017
0.28731188 0.21600541 0.22074275
0.29672107 0.21466166 0.22896622
-0.01348367 0.20803893 0.19194558
-0.0077479482 0.20797552 0.19299869
0.1699599 0.20855923 0.120933
0.17357244 0.21047877 0.12372956
0.24378783 0.21398921 0.18424667
-0.010499753 0.20976064 0.19200018
-0.0071864352 0.20999572 0.19336317
0.043157123 0.21162325 0.17832446
0.15284584 0.20970072 0.10663847
0.16716851 0.21048801 0.11858847
0.17236018 0.21165027 0.12270325
0.1712452 0.21167183 0.12206323
0.19624349 0.213498 0.14356111
0.20578735 0.21371815 0.15141718
0.21117792 0.2152257 0.15661788
0.30996659 0.22047098 0.23816893
-0.012286194 0.21308202 0.19115134
-0.0051969849 0.2134445 0.19460931
0.15500325 0.21226549 0.10779684
0.16184619 0.2121826 0.11382195
0.16301997 0.21315514 0.11488773
0.19494718 0.21479043 0.14253075
0.23164932 0.21678159 0.17309776
0.23215988 0.2187137 0.17315227
0.24909052 0.21952116 0.18724331
0.30473012 0.22279862 0.23352124
0.31542388 0.22345434 0.24244723
0.051604256 0.21605529 0.18271144
0.15523393 0.2137015 0.10762148
0.17555532 0.21531349 0.12489036
0.18536788 0.21682493 0.13335811
0.2039752 0.21867248 0.1502139
0.20559242 0.21777304 0.15115315
0.20685232 0.21824571 0.15258904
0.2236089 0.21909602 0.16635406
0.22937179 0.21937546 0.17075007
0.27809438 0.2230331 0.21218479
0.28367943 0.2228494 0.21614392
0.16418783 0.21810541 0.11495248
